0.627 0.352 0.178 19 0.985
0.625 0.353 0.172 19 0.984
0.626 0.353 0.176 19 0.985
0.624 0.345 0.174 19 0.976
0.626 0.346 0.174 19 0.979
0.630 0.346 0.181 19 0.981
0.640 0.312 0.166 19 0.927
0.646 0.329 0.186 19 0.962
0.635 0.323 0.153 19 0.941
0.639 0.330 0.178 19 0.964
0.652 0.327 0.187 19 0.957
0.643 0.325 0.177 19 0.957
0.641 0.316 0.172 19 0.938
0.643 0.317 0.177 19 0.940
0.647 0.316 0.181 19 0.938
0.645 0.315 0.179 19 0.935
0.645 0.319 0.179 19 0.946
0.648 0.341 0.197 19 0.971
0.645 0.340 0.196 19 0.971
0.649 0.337 0.194 19 0.968
0.652 0.336 0.194 19 0.966
0.629 0.336 0.172 19 0.970
0.631 0.337 0.177 19 0.971
0.629 0.339 0.179 19 0.973
0.630 0.338 0.178 19 0.972
0.634 0.353 0.191 19 0.985
0.555 0.296 0.041 3 0.212
0.555 0.294 0.034 3 0.205
0.531 0.235 0.117 13 0.764
0.529 0.232 0.126 13 0.763
0.531 0.232 0.125 13 0.770
0.511 0.315 0.054 3 0.560
0.522 0.308 0.049 3 0.481
0.523 0.309 0.050 3 0.474
0.528 0.311 0.053 3 0.449
0.533 0.309 0.051 3 0.413
0.526 0.310 0.051 3 0.461
0.528 0.312 0.053 3 0.450
0.524 0.308 0.049 3 0.467
0.533 0.308 0.051 3 0.408
0.525 0.315 0.054 3 0.477
0.499 0.260 0.117 13 0.555
0.489 0.254 0.135 13 0.520
0.529 0.238 0.114 13 0.749
0.516 0.234 0.133 13 0.707
0.513 0.236 0.134 13 0.686
0.516 0.235 0.133 13 0.704
0.508 0.236 0.135 13 0.667
0.509 0.236 0.135 13 0.672
0.506 0.239 0.135 13 0.650
0.526 0.237 0.123 13 0.740
0.526 0.235 0.126 13 0.744
0.523 0.218 0.134 13 0.776
0.523 0.219 0.134 13 0.772
0.520 0.209 0.133 13 0.789
0.523 0.202 0.133 13 0.816
0.523 0.199 0.132 13 0.822
0.517 0.186 0.110 13 0.841
0.519 0.189 0.123 13 0.837
0.530 0.177 0.112 13 0.891
0.532 0.175 0.109 13 0.900
0.526 0.180 0.110 13 0.875
0.524 0.182 0.113 13 0.868
0.528 0.181 0.120 13 0.877
0.525 0.183 0.119 13 0.866
0.531 0.192 0.131 13 0.857
0.529 0.189 0.128 13 0.861
0.528 0.184 0.124 13 0.871
0.529 0.183 0.123 13 0.874
0.532 0.185 0.126 13 0.878
0.532 0.188 0.128 13 0.871
0.533 0.185 0.127 13 0.879
0.538 0.172 0.113 13 0.914
0.537 0.175 0.120 13 0.905
0.536 0.175 0.117 13 0.906
0.539 0.180 0.126 13 0.903
0.537 0.180 0.125 13 0.897
0.539 0.181 0.126 13 0.900
0.437 0.236 0.073 8 0.810
0.436 0.233 0.071 8 0.807
0.440 0.232 0.071 8 0.789
0.461 0.241 0.130 13 0.430
0.466 0.240 0.131 13 0.463
0.462 0.244 0.132 13 0.423
0.459 0.241 0.128 13 0.422
0.464 0.238 0.129 13 0.463
0.437 0.262 0.134 13 0.192
0.425 0.250 0.078 8 0.870
0.427 0.247 0.077 8 0.859
0.436 0.257 0.125 13 0.213
0.435 0.259 0.129 13 0.201
0.443 0.263 0.139 13 0.219
0.441 0.265 0.139 13 0.200
0.435 0.268 0.138 13 0.147
0.436 0.269 0.140 13 0.139
0.437 0.266 0.138 13 0.166
0.439 0.253 0.120 13 0.259
0.438 0.255 0.124 13 0.243
0.429 0.247 0.077 8 0.856
0.438 0.257 0.130 13 0.229
0.440 0.255 0.129 13 0.249
0.501 0.202 0.115 13 0.754
0.503 0.201 0.118 13 0.760
0.495 0.207 0.118 13 0.714
0.466 0.202 0.081 8 0.593
0.458 0.204 0.082 8 0.636
0.462 0.205 0.083 8 0.618
0.462 0.209 0.085 8 0.631
0.454 0.196 0.075 8 0.626
0.455 0.198 0.076 8 0.626
0.455 0.199 0.078 8 0.632
0.452 0.197 0.075 8 0.638
0.458 0.200 0.079 8 0.620
0.461 0.198 0.077 8 0.601
0.475 0.213 0.085 8 0.582
0.478 0.221 0.117 13 0.598
0.480 0.221 0.123 13 0.605
0.475 0.223 0.116 13 0.582
0.474 0.209 0.083 8 0.576
0.496 0.212 0.128 13 0.701
0.492 0.209 0.117 13 0.697
0.504 0.213 0.133 13 0.721
0.504 0.218 0.134 13 0.709
0.512 0.206 0.132 13 0.771
0.515 0.210 0.133 13 0.771
0.510 0.208 0.132 13 0.759
0.517 0.213 0.134 13 0.768
0.514 0.213 0.134 13 0.759
0.459 0.190 0.066 8 0.583
0.515 0.191 0.118 13 0.824
0.518 0.199 0.129 13 0.808
0.518 0.198 0.129 13 0.811
0.519 0.199 0.131 13 0.812
0.529 0.199 0.133 13 0.840
0.519 0.195 0.128 13 0.822
0.516 0.194 0.125 13 0.817
0.488 0.236 0.137 13 0.580
0.472 0.246 0.137 13 0.465
0.471 0.249 0.137 13 0.449
0.470 0.247 0.137 13 0.450
0.469 0.244 0.136 13 0.458
0.470 0.242 0.135 13 0.474
0.473 0.249 0.138 13 0.456
0.475 0.250 0.138 13 0.462
0.473 0.251 0.138 13 0.451
0.477 0.253 0.138 13 0.463
0.479 0.249 0.138 13 0.487
0.478 0.242 0.136 13 0.514
0.483 0.230 0.134 13 0.580
0.482 0.229 0.133 13 0.585
0.486 0.222 0.131 13 0.625
0.485 0.221 0.129 13 0.622
0.494 0.238 0.137 13 0.599
0.495 0.247 0.136 13 0.576
0.497 0.249 0.135 13 0.576
0.506 0.242 0.135 13 0.639
0.504 0.239 0.136 13 0.641
0.481 0.226 0.129 13 0.590
0.493 0.231 0.137 13 0.618
0.493 0.234 0.137 13 0.609
0.500 0.233 0.138 13 0.642
0.498 0.232 0.138 13 0.637
0.499 0.230 0.137 13 0.648
0.487 0.220 0.130 13 0.636
0.491 0.213 0.125 13 0.679
0.494 0.217 0.130 13 0.675
0.494 0.214 0.128 13 0.687
0.485 0.216 0.123 13 0.644
0.485 0.217 0.123 13 0.642
0.482 0.217 0.118 13 0.632
0.488 0.214 0.121 13 0.667
0.495 0.222 0.135 13 0.659
0.509 0.228 0.136 13 0.696
0.507 0.230 0.136 13 0.682
0.507 0.228 0.137 13 0.690
0.515 0.237 0.132 13 0.692
0.519 0.237 0.129 13 0.708
0.518 0.244 0.121 13 0.690
0.519 0.243 0.123 13 0.695
0.522 0.244 0.114 13 0.708
0.521 0.242 0.122 13 0.709
0.506 0.249 0.130 13 0.621
0.502 0.250 0.130 13 0.601
0.504 0.251 0.128 13 0.604
0.511 0.250 0.124 13 0.640
0.503 0.257 0.119 13 0.586
0.506 0.254 0.120 13 0.610
0.589 0.195 0.103 13 0.965
0.574 0.196 0.125 13 0.942
0.576 0.203 0.115 13 0.937
0.583 0.188 0.125 13 0.961
0.588 0.188 0.122 13 0.966
0.581 0.197 0.117 13 0.951
0.584 0.196 0.114 13 0.957
0.581 0.198 0.115 13 0.951
0.600 0.187 0.106 13 0.978
0.575 0.191 0.128 13 0.948
0.580 0.201 0.112 13 0.947
0.590 0.183 0.125 13 0.971
0.594 0.184 0.121 13 0.974
0.584 0.184 0.128 13 0.964
0.581 0.180 0.130 13 0.965
0.595 0.173 0.128 13 0.979
0.591 0.177 0.128 13 0.975
0.589 0.178 0.128 13 0.973
0.594 0.182 0.123 13 0.974
0.593 0.178 0.127 13 0.975
0.590 0.181 0.127 13 0.972
0.595 0.178 0.126 13 0.977
0.601 0.176 0.123 13 0.981
0.598 0.176 0.125 13 0.980
0.597 0.189 0.111 13 0.974
0.599 0.186 0.114 13 0.977
0.582 0.176 0.131 13 0.968
0.584 0.177 0.130 13 0.970
0.583 0.174 0.131 13 0.971
0.586 0.176 0.129 13 0.972
0.572 0.178 0.132 13 0.955
0.579 0.167 0.131 13 0.972
0.578 0.170 0.132 13 0.968
0.583 0.172 0.131 13 0.972
0.586 0.166 0.131 13 0.977
0.589 0.166 0.131 13 0.979
0.548 0.177 0.129 13 0.923
0.539 0.189 0.131 13 0.885
0.545 0.192 0.133 13 0.893
0.544 0.190 0.132 13 0.892
0.547 0.188 0.132 13 0.902
0.562 0.205 0.125 13 0.910
0.554 0.209 0.127 13 0.884
0.546 0.165 0.116 13 0.937
0.564 0.168 0.130 13 0.957
0.548 0.183 0.130 13 0.915
0.547 0.182 0.130 13 0.915
0.548 0.187 0.132 13 0.908
0.556 0.187 0.133 13 0.922
0.564 0.154 0.122 13 0.969
0.564 0.151 0.117 13 0.972
0.573 0.173 0.131 13 0.962
0.564 0.188 0.132 13 0.935
0.551 0.218 0.123 13 0.860
0.556 0.218 0.115 13 0.876
0.532 0.213 0.134 13 0.815
0.532 0.208 0.135 13 0.827
0.534 0.209 0.135 13 0.830
0.534 0.212 0.134 13 0.824
0.543 0.216 0.130 13 0.840
0.536 0.222 0.129 13 0.811
0.523 0.220 0.134 13 0.772
0.529 0.208 0.135 13 0.818
0.526 0.212 0.134 13 0.800
0.550 0.219 0.123 13 0.855
0.551 0.222 0.111 13 0.856
0.547 0.223 0.119 13 0.840
0.549 0.224 0.107 13 0.849
0.547 0.226 0.109 13 0.838
0.662 0.367 0.196 19 0.984
0.662 0.365 0.197 19 0.983
0.663 0.364 0.198 19 0.981
0.657 0.367 0.198 19 0.985
0.659 0.364 0.197 19 0.984
0.666 0.367 0.197 19 0.980
0.665 0.376 0.192 19 0.985
0.662 0.355 0.202 19 0.974
0.668 0.362 0.201 19 0.973
0.670 0.362 0.200 19 0.973
0.671 0.371 0.198 19 0.975
0.660 0.359 0.203 19 0.976
0.659 0.360 0.201 19 0.978
0.646 0.373 0.204 19 0.981
0.642 0.384 0.207 19 0.972
0.642 0.380 0.207 19 0.974
0.645 0.357 0.198 19 0.984
0.648 0.355 0.197 19 0.984
0.635 0.360 0.197 19 0.983
0.632 0.362 0.199 19 0.981
0.622 0.401 0.217 19 0.929
0.616 0.369 0.195 19 0.971
0.640 0.374 0.206 19 0.977
0.638 0.373 0.206 19 0.977
0.634 0.376 0.207 19 0.972
0.635 0.379 0.208 19 0.971
0.623 0.361 0.192 19 0.981
0.625 0.370 0.202 19 0.973
0.630 0.370 0.204 19 0.976
0.627 0.365 0.199 19 0.978
0.626 0.366 0.199 19 0.977
0.627 0.366 0.200 19 0.977
0.629 0.365 0.200 19 0.979
0.628 0.364 0.198 19 0.979
0.629 0.374 0.205 19 0.972
0.632 0.375 0.206 19 0.973
0.629 0.387 0.211 19 0.958
0.623 0.389 0.213 19 0.949
0.620 0.392 0.215 19 0.940
0.618 0.392 0.214 19 0.938
0.618 0.396 0.216 19 0.932
0.624 0.392 0.214 19 0.946
0.625 0.390 0.213 19 0.949
0.626 0.392 0.213 19 0.949
0.633 0.391 0.211 19 0.958
0.631 0.397 0.214 19 0.945
0.630 0.396 0.213 19 0.947
0.634 0.401 0.212 19 0.945
0.635 0.397 0.211 19 0.951
0.681 0.375 0.185 19 0.972
0.682 0.371 0.187 19 0.970
0.671 0.362 0.199 19 0.972
0.671 0.363 0.199 19 0.973
0.673 0.364 0.197 19 0.973
0.685 0.365 0.186 19 0.965
0.720 0.491 0.084 7 0.630
0.714 0.486 0.084 7 0.658
0.713 0.493 0.087 7 0.668
0.712 0.496 0.088 7 0.675
0.714 0.496 0.087 7 0.665
0.710 0.490 0.087 7 0.681
0.729 0.488 0.075 7 0.577
0.729 0.486 0.076 7 0.578
0.727 0.485 0.076 7 0.585
0.743 0.490 0.035 7 0.449
0.725 0.499 0.083 7 0.602
0.724 0.499 0.083 7 0.608
0.745 0.492 0.036 7 0.444
0.747 0.493 0.037 7 0.432
0.748 0.490 0.032 7 0.413
0.744 0.495 0.040 7 0.457
0.749 0.488 0.026 7 0.393
0.719 0.470 0.073 7 0.621
0.718 0.470 0.073 7 0.626
0.725 0.469 0.066 7 0.585
0.725 0.465 0.059 7 0.576
0.769 0.494 0.082 11 0.715
0.767 0.494 0.078 11 0.709
0.777 0.495 0.091 11 0.713
0.785 0.495 0.093 11 0.691
0.779 0.490 0.073 11 0.642
0.781 0.491 0.080 11 0.661
0.779 0.491 0.080 11 0.669
0.754 0.413 0.140 16 0.966
0.742 0.411 0.147 16 0.973
0.744 0.406 0.148 16 0.970
0.747 0.409 0.145 16 0.969
0.750 0.404 0.146 16 0.964
0.745 0.407 0.147 16 0.970
0.756 0.411 0.139 16 0.963
0.755 0.406 0.143 16 0.962
0.745 0.427 0.133 16 0.975
0.742 0.425 0.130 16 0.981
0.734 0.428 0.130 16 0.985
0.727 0.431 0.134 16 0.982
0.729 0.428 0.135 16 0.984
0.724 0.428 0.139 16 0.981
0.730 0.409 0.144 16 0.984
0.734 0.411 0.145 16 0.980
0.732 0.411 0.143 16 0.984
0.736 0.415 0.141 16 0.983
0.768 0.409 0.138 16 0.943
0.774 0.489 0.015 7 0.183
0.775 0.489 0.017 7 0.180
0.785 0.489 0.013 7 0.090
0.775 0.489 0.018 7 0.181
0.775 0.496 0.091 11 0.724
0.777 0.494 0.089 11 0.705
0.775 0.493 0.086 11 0.702
0.766 0.493 0.071 11 0.686
0.766 0.493 0.068 11 0.679
0.148 0.594 0.210 15 0.920
0.148 0.596 0.209 15 0.922
0.150 0.592 0.208 15 0.925
0.156 0.592 0.203 15 0.941
0.151 0.590 0.207 15 0.926
0.157 0.595 0.203 15 0.942
0.151 0.599 0.208 15 0.930
0.149 0.598 0.209 15 0.924
0.142 0.599 0.214 15 0.905
0.140 0.596 0.216 15 0.898
0.141 0.596 0.215 15 0.900
0.142 0.595 0.214 15 0.905
0.149 0.590 0.208 15 0.922
0.126 0.584 0.228 15 0.830
0.128 0.586 0.226 15 0.840
0.124 0.582 0.228 15 0.823
0.125 0.584 0.228 15 0.827
0.097 0.555 0.135 5 0.675
0.100 0.555 0.133 5 0.693
0.125 0.572 0.194 15 0.892
0.107 0.555 0.130 5 0.728
0.107 0.554 0.135 5 0.723
0.110 0.555 0.131 5 0.744
0.130 0.572 0.197 15 0.895
0.124 0.572 0.210 15 0.858
0.125 0.572 0.210 15 0.860
0.124 0.571 0.208 15 0.861
0.128 0.574 0.213 15 0.864
0.135 0.574 0.188 15 0.922
0.138 0.574 0.194 15 0.918
0.136 0.574 0.185 15 0.928
0.110 0.553 0.136 5 0.737
0.154 0.600 0.206 15 0.937
0.156 0.600 0.204 15 0.942
0.147 0.599 0.211 15 0.919
0.147 0.601 0.211 15 0.919
0.145 0.601 0.212 15 0.914
0.146 0.605 0.211 15 0.920
0.141 0.616 0.207 15 0.922
0.139 0.619 0.204 15 0.925
0.140 0.615 0.208 15 0.918
0.143 0.610 0.210 15 0.919
0.144 0.609 0.209 15 0.922
0.144 0.610 0.209 15 0.923
0.175 0.605 0.190 15 0.975
0.177 0.603 0.188 15 0.977
0.177 0.606 0.188 15 0.977
0.174 0.602 0.190 15 0.974
0.143 0.577 0.197 15 0.923
0.141 0.576 0.197 15 0.919
0.143 0.577 0.198 15 0.922
0.142 0.574 0.191 15 0.927
0.168 0.600 0.195 15 0.965
0.166 0.599 0.196 15 0.962
0.167 0.595 0.193 15 0.965
0.165 0.598 0.196 15 0.961
0.162 0.596 0.198 15 0.956
0.162 0.596 0.197 15 0.957
0.165 0.600 0.196 15 0.961
0.158 0.601 0.203 15 0.946
0.158 0.605 0.202 15 0.948
0.158 0.600 0.203 15 0.946
0.167 0.587 0.188 15 0.966
0.167 0.589 0.191 15 0.964
0.166 0.589 0.191 15 0.963
0.158 0.587 0.197 15 0.949
0.157 0.588 0.200 15 0.945
0.161 0.592 0.197 15 0.954
0.160 0.588 0.196 15 0.952
0.160 0.587 0.195 15 0.953
0.166 0.591 0.192 15 0.964
0.134 0.596 0.222 15 0.871
0.129 0.598 0.226 15 0.853
0.135 0.603 0.219 15 0.883
0.138 0.598 0.218 15 0.889
0.180 0.623 0.178 15 0.984
0.183 0.624 0.176 15 0.984
0.181 0.627 0.174 15 0.985
0.183 0.626 0.173 15 0.985
0.184 0.617 0.179 15 0.984
0.184 0.620 0.178 15 0.984
0.178 0.621 0.182 15 0.982
0.176 0.618 0.185 15 0.980
0.178 0.615 0.185 15 0.980
0.177 0.609 0.187 15 0.978
0.173 0.608 0.190 15 0.974
0.167 0.607 0.195 15 0.966
0.169 0.607 0.194 15 0.969
0.168 0.610 0.194 15 0.968
0.175 0.617 0.186 15 0.979
0.171 0.607 0.192 15 0.971
0.171 0.610 0.191 15 0.972
0.170 0.603 0.194 15 0.968
0.164 0.600 0.198 15 0.958
0.046 0.554 0.274 15 0.299
0.049 0.555 0.267 15 0.353
0.058 0.560 0.275 15 0.372
0.059 0.562 0.275 15 0.378
0.054 0.558 0.276 15 0.340
0.064 0.564 0.272 15 0.420
0.057 0.558 0.253 15 0.467
0.016 0.555 0.156 5 0.102
0.055 0.558 0.252 15 0.454
0.061 0.558 0.261 15 0.451
0.059 0.558 0.256 15 0.461
0.018 0.553 0.159 5 0.110
0.019 0.551 0.165 5 0.104
0.057 0.557 0.260 15 0.429
0.056 0.557 0.266 15 0.400
0.061 0.564 0.276 15 0.391
0.060 0.596 0.267 15 0.469
0.056 0.596 0.269 15 0.437
0.066 0.561 0.261 15 0.474
0.068 0.561 0.261 15 0.485
0.061 0.576 0.281 15 0.383
0.079 0.561 0.245 15 0.597
0.076 0.561 0.244 15 0.589
0.074 0.561 0.237 15 0.608
0.074 0.561 0.238 15 0.602
0.074 0.560 0.244 15 0.578
0.037 0.553 0.153 5 0.278
0.077 0.562 0.251 15 0.569
0.079 0.565 0.258 15 0.554
0.092 0.571 0.252 15 0.636
0.077 0.575 0.267 15 0.522
0.079 0.571 0.264 15 0.537
0.076 0.573 0.268 15 0.508
0.074 0.575 0.269 15 0.499
0.088 0.574 0.258 15 0.600
0.083 0.577 0.263 15 0.567
0.088 0.582 0.259 15 0.606
0.070 0.565 0.266 15 0.477
0.073 0.563 0.258 15 0.524
0.075 0.567 0.263 15 0.517
0.073 0.563 0.261 15 0.514
0.094 0.609 0.235 15 0.736
0.082 0.601 0.253 15 0.625
0.083 0.601 0.253 15 0.630
0.084 0.601 0.252 15 0.635
0.085 0.603 0.248 15 0.658
0.087 0.599 0.254 15 0.641
0.083 0.600 0.254 15 0.622
0.085 0.596 0.257 15 0.615
0.074 0.605 0.246 15 0.624
0.074 0.604 0.249 15 0.608
0.077 0.605 0.247 15 0.627
0.071 0.601 0.257 15 0.564
0.082 0.596 0.258 15 0.601
0.084 0.594 0.259 15 0.605
0.065 0.586 0.274 15 0.449
0.100 0.597 0.246 15 0.714
0.096 0.584 0.253 15 0.660
0.118 0.582 0.233 15 0.796
0.117 0.582 0.233 15 0.792
0.120 0.588 0.233 15 0.806
0.120 0.589 0.233 15 0.807
0.122 0.589 0.232 15 0.814
0.121 0.592 0.232 15 0.814
0.114 0.605 0.232 15 0.803
0.097 0.588 0.252 15 0.672
0.091 0.588 0.258 15 0.627
0.088 0.589 0.259 15 0.614
0.089 0.590 0.258 15 0.623
0.088 0.585 0.260 15 0.610
0.089 0.595 0.255 15 0.642
0.089 0.597 0.254 15 0.645
0.100 0.586 0.250 15 0.687
0.101 0.587 0.249 15 0.697
0.100 0.581 0.250 15 0.683
0.110 0.589 0.241 15 0.754
0.114 0.586 0.237 15 0.775
0.116 0.588 0.236 15 0.786
0.106 0.570 0.231 15 0.752
0.107 0.570 0.231 15 0.755
0.100 0.576 0.247 15 0.688
0.101 0.575 0.244 15 0.701
0.106 0.600 0.240 15 0.753
0.117 0.534 0.148 5 0.752
0.116 0.529 0.149 5 0.750
0.114 0.531 0.150 5 0.736
0.116 0.540 0.147 5 0.749
0.114 0.544 0.146 5 0.740
0.113 0.533 0.150 5 0.734
0.112 0.530 0.151 5 0.726
0.108 0.536 0.151 5 0.709
0.109 0.540 0.150 5 0.714
0.108 0.534 0.151 5 0.709
0.105 0.538 0.151 5 0.695
0.111 0.530 0.151 5 0.721
0.110 0.522 0.148 5 0.725
0.105 0.534 0.152 5 0.692
0.104 0.554 0.136 5 0.708
0.106 0.542 0.150 5 0.697
0.103 0.540 0.151 5 0.686
0.101 0.547 0.147 5 0.678
0.137 0.524 0.143 5 0.835
0.137 0.543 0.142 5 0.836
0.142 0.542 0.141 5 0.852
0.141 0.544 0.140 5 0.849
0.130 0.527 0.145 5 0.808
0.127 0.527 0.145 5 0.796
0.127 0.524 0.144 5 0.798
0.133 0.533 0.145 5 0.816
0.124 0.524 0.145 5 0.788
0.123 0.526 0.146 5 0.781
0.138 0.529 0.144 5 0.836
0.139 0.533 0.144 5 0.841
0.101 0.568 0.210 15 0.793
0.104 0.567 0.218 15 0.781
0.110 0.573 0.232 15 0.767
0.112 0.577 0.234 15 0.772
0.112 0.578 0.236 15 0.765
0.110 0.571 0.226 15 0.782
0.109 0.569 0.220 15 0.793
0.113 0.571 0.223 15 0.798
0.107 0.568 0.221 15 0.783
0.103 0.538 0.152 5 0.682
0.099 0.539 0.153 5 0.661
0.096 0.554 0.139 5 0.666
0.096 0.553 0.140 5 0.662
0.098 0.553 0.141 5 0.672
0.099 0.549 0.146 5 0.672
0.100 0.550 0.145 5 0.676
0.093 0.566 0.241 15 0.673
0.093 0.566 0.240 15 0.678
0.092 0.565 0.238 15 0.678
0.097 0.568 0.240 15 0.693
0.100 0.568 0.235 15 0.716
0.097 0.566 0.233 15 0.712
0.099 0.570 0.242 15 0.694
0.100 0.567 0.234 15 0.720
0.103 0.570 0.238 15 0.721
0.120 0.571 0.214 15 0.837
0.120 0.572 0.220 15 0.825
0.116 0.569 0.215 15 0.825
0.114 0.568 0.215 15 0.816
0.115 0.569 0.217 15 0.815
0.119 0.575 0.226 15 0.809
0.117 0.572 0.222 15 0.813
0.114 0.573 0.228 15 0.790
0.115 0.571 0.222 15 0.807
0.114 0.571 0.223 15 0.800
0.098 0.528 0.154 5 0.654
0.098 0.530 0.154 5 0.656
0.101 0.526 0.152 5 0.675
0.101 0.527 0.152 5 0.674
0.108 0.521 0.148 5 0.715
0.110 0.519 0.147 5 0.723
0.106 0.518 0.147 5 0.708
0.103 0.523 0.150 5 0.687
0.100 0.520 0.150 5 0.673
0.098 0.516 0.147 5 0.667
0.094 0.515 0.146 5 0.649
0.097 0.514 0.145 5 0.666
0.095 0.518 0.149 5 0.652
0.096 0.510 0.136 5 0.674
0.094 0.511 0.137 5 0.660
0.107 0.516 0.144 5 0.714
0.108 0.516 0.144 5 0.722
0.107 0.514 0.142 5 0.719
0.106 0.514 0.142 5 0.714
0.114 0.510 0.132 5 0.760
0.115 0.510 0.133 5 0.763
0.104 0.510 0.131 5 0.719
0.105 0.511 0.135 5 0.716
0.120 0.522 0.145 5 0.771
0.119 0.515 0.140 5 0.775
0.117 0.511 0.136 5 0.768
0.116 0.513 0.138 5 0.763
0.120 0.511 0.135 5 0.782
0.127 0.518 0.142 5 0.803
0.128 0.516 0.139 5 0.807
0.176 0.417 0.108 3 0.055
0.180 0.420 0.108 3 0.084
0.177 0.422 0.109 3 0.048
0.169 0.419 0.108 3 0.000
0.171 0.419 0.109 3 0.003
0.172 0.421 0.109 3 0.008
0.177 0.402 0.111 8 0.000
0.224 0.383 0.160 17 0.000
0.225 0.383 0.158 17 0.004
0.222 0.387 0.161 17 0.001
0.193 0.388 0.115 8 0.159
0.132 0.514 0.138 5 0.824
0.132 0.515 0.138 5 0.823
0.127 0.516 0.140 5 0.805
0.127 0.509 0.130 5 0.814
0.118 0.509 0.121 5 0.790
0.188 0.504 0.097 5 0.973
0.179 0.445 0.089 3 0.036
0.175 0.446 0.091 3 0.000
0.173 0.429 0.110 3 0.000
0.172 0.423 0.110 3 0.002
0.174 0.424 0.110 3 0.020
0.182 0.416 0.107 3 0.111
0.184 0.419 0.108 3 0.114
0.180 0.422 0.109 3 0.075
0.174 0.436 0.106 3 0.000
0.180 0.433 0.107 3 0.051
0.164 0.407 0.092 3 0.000
0.580 0.672 0.166 9 0.886
0.581 0.677 0.166 9 0.883
0.582 0.677 0.160 9 0.889
0.580 0.685 0.159 9 0.886
0.580 0.687 0.156 9 0.888
0.574 0.681 0.165 9 0.895
0.573 0.678 0.168 9 0.895
0.400 0.684 0.110 9 0.663
0.401 0.682 0.111 9 0.669
0.399 0.681 0.112 9 0.658
0.404 0.683 0.112 9 0.685
0.573 0.687 0.158 9 0.901
0.571 0.688 0.156 9 0.907
0.578 0.692 0.146 9 0.897
0.576 0.685 0.161 9 0.892
0.573 0.685 0.161 9 0.899
0.566 0.665 0.174 9 0.904
0.539 0.589 0.289 11 0.020
0.547 0.615 0.292 11 0.005
0.546 0.611 0.286 11 0.046
0.549 0.615 0.297 11 0.000
0.552 0.608 0.301 11 0.000
0.551 0.608 0.301 11 0.000
0.551 0.606 0.302 11 0.000
0.549 0.608 0.295 11 0.018
0.557 0.614 0.292 11 0.075
0.553 0.614 0.295 11 0.029
0.565 0.614 0.280 11 0.187
0.564 0.609 0.288 11 0.145
0.563 0.609 0.290 11 0.133
0.563 0.616 0.278 11 0.185
0.534 0.615 0.271 11 0.039
0.443 0.638 0.101 9 0.850
0.447 0.596 0.069 4 0.888
0.445 0.638 0.105 9 0.860
0.444 0.638 0.102 9 0.853
0.466 0.627 0.037 4 0.727
0.456 0.593 0.084 4 0.887
0.454 0.595 0.079 4 0.885
0.454 0.592 0.085 4 0.892
0.453 0.593 0.083 4 0.891
0.446 0.596 0.067 4 0.888
0.444 0.595 0.066 4 0.888
0.448 0.590 0.082 4 0.901
0.493 0.546 0.300 17 0.653
0.496 0.554 0.295 17 0.630
0.480 0.617 0.052 4 0.764
0.491 0.551 0.292 17 0.670
0.473 0.621 0.041 4 0.748
0.479 0.619 0.051 4 0.759
0.478 0.622 0.055 4 0.752
0.480 0.622 0.063 4 0.750
0.477 0.625 0.062 4 0.743
0.476 0.624 0.056 4 0.747
0.477 0.623 0.057 4 0.749
0.484 0.620 0.068 4 0.750
0.422 0.641 0.098 9 0.766
0.421 0.641 0.098 9 0.765
0.421 0.641 0.097 9 0.762
0.423 0.641 0.102 9 0.777
0.427 0.641 0.106 9 0.794
0.430 0.640 0.107 9 0.810
0.426 0.644 0.113 9 0.796
0.424 0.642 0.107 9 0.785
0.421 0.643 0.110 9 0.773
0.423 0.642 0.104 9 0.779
0.416 0.643 0.109 9 0.753
0.415 0.643 0.106 9 0.744
0.415 0.642 0.102 9 0.741
0.420 0.642 0.109 9 0.770
0.427 0.662 0.126 9 0.807
0.428 0.664 0.126 9 0.810
0.420 0.662 0.124 9 0.776
0.418 0.664 0.123 9 0.765
0.418 0.661 0.124 9 0.768
0.410 0.664 0.121 9 0.730
0.409 0.671 0.120 9 0.722
0.417 0.660 0.123 9 0.761
0.414 0.660 0.122 9 0.748
0.417 0.656 0.121 9 0.765
0.408 0.655 0.119 9 0.723
0.409 0.661 0.121 9 0.727
0.410 0.662 0.121 9 0.729
0.414 0.663 0.123 9 0.751
0.424 0.656 0.123 9 0.795
0.423 0.654 0.122 9 0.789
0.427 0.652 0.123 9 0.805
0.435 0.640 0.112 9 0.828
0.311 0.629 0.037 15 0.294
0.339 0.575 0.076 5 0.611
0.337 0.575 0.077 5 0.622
0.340 0.573 0.081 5 0.614
0.327 0.633 0.020 15 0.104
0.335 0.636 0.012 15 0.002
0.337 0.637 0.018 15 0.017
0.334 0.636 0.020 15 0.051
0.333 0.635 0.016 15 0.039
0.349 0.563 0.092 5 0.589
0.348 0.569 0.080 5 0.578
0.348 0.569 0.078 5 0.577
0.345 0.570 0.084 5 0.594
0.344 0.647 0.025 15 0.000
0.361 0.648 0.085 9 0.418
0.343 0.652 0.026 15 0.000
0.373 0.647 0.088 9 0.501
0.378 0.646 0.092 9 0.534
0.343 0.644 0.022 15 0.000
0.482 0.531 0.300 17 0.730
0.477 0.533 0.296 17 0.751
0.480 0.535 0.297 17 0.736
0.489 0.523 0.303 17 0.713
0.447 0.587 0.085 4 0.909
0.464 0.538 0.277 17 0.816
0.445 0.585 0.085 4 0.915
0.437 0.580 0.083 4 0.930
0.477 0.534 0.295 17 0.751
0.477 0.537 0.293 17 0.748
0.480 0.538 0.296 17 0.729
0.475 0.541 0.286 17 0.763
0.453 0.588 0.088 4 0.900
0.434 0.585 0.071 4 0.922
0.434 0.584 0.073 4 0.924
0.431 0.580 0.074 4 0.934
0.440 0.581 0.085 4 0.926
0.440 0.579 0.088 4 0.931
0.550 0.495 0.259 19 0.318
0.550 0.492 0.258 19 0.342
0.552 0.484 0.255 19 0.402
0.551 0.467 0.246 19 0.498
0.550 0.470 0.247 19 0.481
0.547 0.467 0.245 19 0.487
0.549 0.464 0.243 19 0.512
0.553 0.471 0.249 19 0.483
0.547 0.471 0.247 19 0.463
0.544 0.470 0.245 19 0.462
0.550 0.473 0.249 19 0.459
0.547 0.473 0.249 19 0.449
0.543 0.475 0.249 19 0.427
0.544 0.477 0.251 19 0.412
0.539 0.477 0.250 19 0.392
0.549 0.478 0.253 19 0.425
0.532 0.523 0.294 17 0.545
0.529 0.522 0.290 17 0.571
0.532 0.523 0.296 17 0.543
0.454 0.444 0.223 10 0.917
0.454 0.440 0.222 10 0.923
0.472 0.443 0.222 10 0.895
0.468 0.444 0.223 10 0.897
0.472 0.442 0.222 10 0.896
0.476 0.443 0.221 10 0.889
0.454 0.464 0.223 10 0.885
0.455 0.461 0.224 10 0.887
0.449 0.461 0.223 10 0.895
0.457 0.464 0.223 10 0.883
0.441 0.458 0.220 10 0.912
0.444 0.461 0.221 10 0.904
0.445 0.460 0.222 10 0.902
0.454 0.459 0.224 10 0.891
0.449 0.457 0.223 10 0.901
0.450 0.453 0.223 10 0.907
0.444 0.449 0.221 10 0.921
0.447 0.451 0.222 10 0.915
0.444 0.451 0.221 10 0.918
0.443 0.450 0.221 10 0.921
0.441 0.452 0.220 10 0.921
0.443 0.454 0.221 10 0.914
0.462 0.479 0.211 10 0.866
0.463 0.474 0.213 10 0.875
0.466 0.475 0.214 10 0.865
0.460 0.480 0.210 10 0.869
0.462 0.480 0.211 10 0.865
0.457 0.476 0.208 10 0.884
0.461 0.473 0.212 10 0.882
0.530 0.563 0.318 17 0.377
0.522 0.561 0.312 17 0.446
0.518 0.559 0.310 17 0.479
0.519 0.557 0.314 17 0.467
0.523 0.557 0.316 17 0.441
0.529 0.527 0.307 17 0.517
0.522 0.528 0.311 17 0.543
0.521 0.529 0.312 17 0.538
0.524 0.531 0.312 17 0.518
0.534 0.530 0.310 17 0.477
0.533 0.531 0.312 17 0.474
0.532 0.530 0.312 17 0.481
0.534 0.542 0.321 17 0.410
0.534 0.543 0.322 17 0.404
0.522 0.537 0.316 17 0.503
0.519 0.536 0.315 17 0.520
0.521 0.539 0.316 17 0.504
0.527 0.544 0.319 17 0.449
0.526 0.546 0.320 17 0.448
0.532 0.543 0.321 17 0.415
0.521 0.545 0.317 17 0.485
0.536 0.538 0.318 17 0.420
0.531 0.534 0.315 17 0.469
0.535 0.536 0.317 17 0.431
0.534 0.537 0.318 17 0.431
0.532 0.537 0.318 17 0.444
0.536 0.545 0.323 17 0.387
0.511 0.543 0.314 17 0.544
0.501 0.617 0.089 4 0.718
0.515 0.562 0.299 17 0.513
0.516 0.561 0.305 17 0.495
0.505 0.620 0.089 4 0.696
0.521 0.564 0.307 17 0.456
0.518 0.558 0.310 17 0.480
0.516 0.558 0.308 17 0.498
0.516 0.555 0.312 17 0.494
0.517 0.560 0.307 17 0.492
0.514 0.561 0.300 17 0.519
0.516 0.552 0.313 17 0.499
0.512 0.555 0.309 17 0.523
0.507 0.556 0.303 17 0.559
0.507 0.552 0.307 17 0.558
0.514 0.509 0.267 19 0.038
0.514 0.512 0.284 17 0.674
0.508 0.511 0.292 17 0.689
0.510 0.514 0.297 17 0.660
0.507 0.515 0.301 17 0.659
0.508 0.505 0.250 10 0.583
0.509 0.506 0.258 19 0.063
0.505 0.505 0.250 10 0.592
0.509 0.508 0.261 19 0.041
0.504 0.497 0.249 10 0.625
0.502 0.499 0.250 10 0.621
0.499 0.504 0.250 10 0.615
0.511 0.500 0.249 10 0.592
0.524 0.502 0.265 19 0.145
0.517 0.504 0.263 19 0.104
0.516 0.507 0.266 19 0.066
0.518 0.505 0.265 19 0.094
0.514 0.505 0.263 19 0.082
0.516 0.501 0.259 19 0.129
0.517 0.501 0.260 19 0.133
0.520 0.502 0.263 19 0.131
0.513 0.501 0.252 19 0.138
0.514 0.500 0.254 19 0.139
0.512 0.502 0.254 19 0.114
0.511 0.506 0.259 19 0.075
0.517 0.508 0.267 19 0.066
0.521 0.505 0.266 19 0.111
0.521 0.521 0.303 17 0.583
0.522 0.520 0.299 17 0.589
0.521 0.525 0.308 17 0.561
0.515 0.526 0.309 17 0.583
0.515 0.521 0.305 17 0.606
0.515 0.520 0.305 17 0.604
0.523 0.510 0.269 19 0.075
0.520 0.516 0.288 17 0.632
0.520 0.514 0.272 19 0.020
0.489 0.538 0.302 17 0.684
0.490 0.537 0.303 17 0.677
0.506 0.534 0.311 17 0.602
0.500 0.530 0.308 17 0.642
0.492 0.537 0.304 17 0.669
0.496 0.537 0.307 17 0.644
0.497 0.537 0.308 17 0.640
0.496 0.541 0.306 17 0.637
0.492 0.514 0.299 17 0.727
0.488 0.512 0.297 17 0.750
0.491 0.508 0.294 17 0.755
0.495 0.517 0.302 17 0.706
0.493 0.520 0.303 17 0.702
0.497 0.519 0.304 17 0.687
0.497 0.519 0.303 17 0.689
0.480 0.518 0.298 17 0.766
0.480 0.523 0.299 17 0.753
0.465 0.483 0.212 10 0.851
0.464 0.483 0.254 17 0.919
0.464 0.484 0.256 17 0.916
0.462 0.482 0.262 17 0.916
0.469 0.486 0.265 17 0.892
0.468 0.489 0.275 17 0.882
0.471 0.489 0.272 17 0.877
0.467 0.485 0.254 17 0.910
0.467 0.483 0.214 10 0.846
0.503 0.511 0.295 17 0.702
0.498 0.509 0.295 17 0.721
0.497 0.509 0.295 17 0.728
0.491 0.505 0.291 17 0.764
0.490 0.504 0.290 17 0.773
0.490 0.505 0.291 17 0.767
0.488 0.504 0.290 17 0.778
0.490 0.503 0.287 17 0.780
0.487 0.502 0.286 17 0.792
0.488 0.501 0.284 17 0.793
0.495 0.511 0.297 17 0.727
0.495 0.503 0.284 17 0.767
0.496 0.503 0.279 17 0.771
0.497 0.504 0.285 17 0.754
0.502 0.506 0.287 17 0.729
0.498 0.492 0.248 10 0.666
0.499 0.490 0.247 10 0.671
0.497 0.488 0.246 10 0.686
0.515 0.519 0.304 17 0.613
0.499 0.523 0.307 17 0.663
0.509 0.526 0.310 17 0.609
0.513 0.538 0.314 17 0.550
0.519 0.534 0.315 17 0.527
0.514 0.535 0.314 17 0.550
0.519 0.532 0.314 17 0.535
0.518 0.538 0.315 17 0.523
0.498 0.549 0.303 17 0.620
0.506 0.630 0.120 9 0.980
0.508 0.632 0.133 9 0.982
0.525 0.596 0.275 11 0.000
0.527 0.596 0.277 11 0.000
0.528 0.598 0.276 11 0.002
0.508 0.624 0.088 4 0.671
0.508 0.625 0.088 4 0.667
0.509 0.625 0.088 4 0.663
0.506 0.629 0.087 4 0.657
0.507 0.629 0.086 4 0.652
0.509 0.628 0.087 4 0.652
0.506 0.640 0.142 9 0.982
0.507 0.643 0.144 9 0.983
0.494 0.638 0.135 9 0.973
0.495 0.640 0.138 9 0.974
0.491 0.639 0.135 9 0.970
0.493 0.649 0.143 9 0.973
0.491 0.654 0.144 9 0.970
0.495 0.651 0.144 9 0.974
0.505 0.642 0.143 9 0.981
0.496 0.640 0.139 9 0.975
0.493 0.643 0.140 9 0.972
0.526 0.605 0.273 11 0.000
0.525 0.605 0.272 11 0.000
0.527 0.601 0.275 11 0.000
0.473 0.629 0.062 4 0.734
0.476 0.627 0.064 4 0.738
0.471 0.629 0.060 4 0.733
0.470 0.635 0.050 4 0.703
0.471 0.631 0.059 4 0.723
0.472 0.629 0.062 4 0.733
0.474 0.630 0.065 4 0.727
0.470 0.633 0.053 4 0.716
0.476 0.629 0.069 4 0.728
0.495 0.618 0.085 4 0.735
0.490 0.620 0.082 4 0.737
0.488 0.620 0.075 4 0.745
0.496 0.626 0.085 4 0.697
0.494 0.626 0.085 4 0.703
0.481 0.633 0.072 4 0.705
0.484 0.631 0.077 4 0.707
0.488 0.634 0.077 4 0.683
0.496 0.634 0.131 9 0.974
0.497 0.634 0.131 9 0.975
0.499 0.635 0.133 9 0.977
0.503 0.634 0.134 9 0.980
0.475 0.642 0.132 9 0.946
0.476 0.637 0.127 9 0.946
0.475 0.638 0.127 9 0.945
0.476 0.635 0.123 9 0.945
0.490 0.642 0.138 9 0.968
0.481 0.641 0.133 9 0.957
0.485 0.641 0.134 9 0.963
0.482 0.645 0.137 9 0.959
0.484 0.646 0.138 9 0.962
0.477 0.646 0.136 9 0.950
0.498 0.684 0.126 9 0.970
0.502 0.683 0.127 9 0.974
0.508 0.660 0.147 9 0.983
0.512 0.662 0.148 9 0.984
0.508 0.662 0.147 9 0.983
0.504 0.662 0.146 9 0.981
0.502 0.657 0.146 9 0.980
0.500 0.661 0.145 9 0.978
0.505 0.651 0.147 9 0.982
0.512 0.648 0.148 9 0.984
0.514 0.652 0.149 9 0.984
0.509 0.644 0.145 9 0.983
0.520 0.654 0.157 9 0.976
0.533 0.587 0.287 11 0.000
0.536 0.587 0.289 11 0.006
0.538 0.591 0.284 11 0.041
0.535 0.590 0.284 11 0.023
0.547 0.595 0.298 11 0.013
0.545 0.592 0.297 11 0.005
0.440 0.524 0.267 17 0.909
0.441 0.523 0.270 17 0.906
0.445 0.519 0.280 17 0.891
0.447 0.521 0.281 17 0.881
0.448 0.517 0.283 17 0.882
0.436 0.523 0.265 17 0.919
0.436 0.522 0.267 17 0.920
0.434 0.521 0.267 17 0.924
0.437 0.518 0.272 17 0.916
0.437 0.521 0.269 17 0.917
0.451 0.518 0.284 17 0.874
0.452 0.517 0.285 17 0.871
0.455 0.528 0.281 17 0.854
0.451 0.527 0.279 17 0.867
0.456 0.530 0.280 17 0.848
0.456 0.528 0.283 17 0.846
0.451 0.513 0.286 17 0.878
0.453 0.513 0.287 17 0.870
0.438 0.511 0.278 17 0.917
0.434 0.511 0.277 17 0.924
0.436 0.506 0.279 17 0.924
0.487 0.518 0.301 17 0.736
0.457 0.515 0.290 17 0.853
0.455 0.518 0.287 17 0.859
0.461 0.517 0.292 17 0.834
0.455 0.520 0.287 17 0.854
0.461 0.520 0.290 17 0.836
0.456 0.526 0.285 17 0.846
0.439 0.465 0.217 10 0.905
0.436 0.465 0.241 17 0.975
0.437 0.466 0.242 17 0.973
0.443 0.473 0.262 17 0.953
0.440 0.476 0.267 17 0.952
0.444 0.477 0.268 17 0.946
0.406 0.475 0.265 17 0.982
0.429 0.463 0.249 17 0.978
0.429 0.462 0.249 17 0.978
0.432 0.464 0.253 17 0.974
0.429 0.461 0.242 17 0.980
0.428 0.460 0.240 17 0.981
0.430 0.461 0.242 17 0.980
0.435 0.464 0.245 17 0.975
0.433 0.463 0.243 17 0.977
0.434 0.465 0.253 17 0.973
0.435 0.465 0.249 17 0.973
0.437 0.472 0.262 17 0.961
0.433 0.471 0.263 17 0.965
0.439 0.467 0.252 17 0.968
0.442 0.471 0.257 17 0.959
0.444 0.471 0.251 17 0.961
0.444 0.470 0.249 17 0.962
0.439 0.469 0.257 17 0.964
0.440 0.472 0.261 17 0.959
0.444 0.473 0.262 17 0.952
0.426 0.472 0.266 17 0.970
0.424 0.469 0.263 17 0.974
0.422 0.470 0.264 17 0.974
0.437 0.494 0.279 17 0.933
0.431 0.472 0.266 17 0.966
0.433 0.468 0.260 17 0.968
0.436 0.476 0.268 17 0.957
0.439 0.476 0.269 17 0.952
0.441 0.478 0.270 17 0.947
0.433 0.484 0.275 17 0.950
0.421 0.504 0.270 17 0.956
0.421 0.489 0.272 17 0.964
0.419 0.491 0.272 17 0.964
0.410 0.494 0.268 17 0.973
0.411 0.497 0.268 17 0.970
0.415 0.490 0.271 17 0.969
0.430 0.490 0.276 17 0.950
0.431 0.491 0.276 17 0.948
0.430 0.494 0.277 17 0.945
0.432 0.499 0.279 17 0.936
0.430 0.503 0.277 17 0.938
0.430 0.500 0.278 17 0.939
0.427 0.503 0.275 17 0.944
0.419 0.497 0.272 17 0.961
0.415 0.497 0.270 17 0.966
0.416 0.499 0.269 17 0.964
0.419 0.492 0.272 17 0.964
0.427 0.500 0.276 17 0.946
0.423 0.505 0.271 17 0.952
0.423 0.496 0.274 17 0.955
0.421 0.495 0.273 17 0.959
0.408 0.488 0.268 17 0.976
0.408 0.485 0.267 17 0.978
0.407 0.503 0.261 17 0.974
0.406 0.499 0.263 17 0.975
0.409 0.501 0.264 17 0.972
0.410 0.503 0.264 17 0.970
0.408 0.505 0.259 17 0.973
0.410 0.507 0.260 17 0.970
0.409 0.510 0.254 17 0.972
0.407 0.510 0.250 17 0.975
0.455 0.489 0.278 17 0.906
0.458 0.486 0.275 17 0.906
0.456 0.485 0.274 17 0.913
0.461 0.481 0.255 17 0.924
0.449 0.486 0.277 17 0.923
0.450 0.483 0.274 17 0.925
0.447 0.485 0.276 17 0.927
0.451 0.475 0.261 17 0.942
0.453 0.479 0.267 17 0.930
0.452 0.475 0.259 17 0.941
0.446 0.477 0.268 17 0.942
0.448 0.480 0.271 17 0.934
0.352 0.554 0.094 5 0.580
0.352 0.555 0.094 5 0.579
0.349 0.556 0.099 5 0.593
0.347 0.553 0.103 5 0.610
0.343 0.552 0.105 5 0.629
0.342 0.556 0.103 5 0.635
0.367 0.543 0.058 5 0.462
0.405 0.509 0.249 17 0.978
0.353 0.542 0.098 5 0.584
0.326 0.576 0.078 5 0.679
0.401 0.456 0.257 17 0.979
0.400 0.458 0.256 17 0.982
0.402 0.459 0.254 17 0.984
0.405 0.455 0.251 17 0.983
0.401 0.455 0.258 17 0.977
0.421 0.483 0.272 17 0.966
0.419 0.477 0.269 17 0.973
0.421 0.472 0.266 17 0.975
0.424 0.474 0.267 17 0.970
0.423 0.480 0.271 17 0.967
0.427 0.476 0.269 17 0.966
0.427 0.473 0.267 17 0.968
0.425 0.480 0.271 17 0.965
0.416 0.464 0.258 17 0.982
0.418 0.481 0.271 17 0.970
0.404 0.483 0.265 17 0.981
0.401 0.482 0.264 17 0.982
0.377 0.478 0.260 17 0.971
0.381 0.480 0.262 17 0.973
0.375 0.479 0.259 17 0.970
0.372 0.483 0.255 17 0.969
0.375 0.480 0.258 17 0.971
0.381 0.476 0.262 17 0.973
0.379 0.471 0.261 17 0.971
0.384 0.474 0.263 17 0.974
0.376 0.472 0.260 17 0.969
0.377 0.469 0.260 17 0.969
0.355 0.476 0.252 17 0.943
0.355 0.480 0.249 17 0.943
0.356 0.477 0.250 17 0.945
0.347 0.490 0.237 17 0.928
0.358 0.496 0.227 17 0.947
0.357 0.544 0.060 5 0.530
0.359 0.543 0.062 5 0.518
0.390 0.468 0.263 17 0.977
0.388 0.465 0.264 17 0.973
0.387 0.470 0.264 17 0.974
0.400 0.468 0.260 17 0.984
0.403 0.464 0.258 17 0.985
0.401 0.464 0.258 17 0.985
0.392 0.462 0.264 17 0.975
0.387 0.459 0.261 17 0.972
0.395 0.449 0.255 17 0.971
0.392 0.449 0.255 17 0.970
0.399 0.450 0.255 17 0.973
0.394 0.456 0.261 17 0.973
0.391 0.458 0.261 17 0.973
0.374 0.443 0.253 17 0.948
0.376 0.439 0.252 17 0.944
0.379 0.442 0.249 17 0.955
0.380 0.433 0.247 17 0.940
0.382 0.430 0.245 17 0.938
0.382 0.434 0.245 17 0.947
0.379 0.438 0.248 17 0.948
0.370 0.425 0.243 17 0.912
0.370 0.428 0.246 17 0.919
0.368 0.427 0.245 17 0.913
0.366 0.423 0.241 17 0.902
0.369 0.423 0.241 17 0.909
0.378 0.433 0.249 17 0.939
0.378 0.435 0.250 17 0.941
0.377 0.430 0.247 17 0.932
0.362 0.434 0.251 17 0.915
0.362 0.433 0.250 17 0.914
0.366 0.432 0.250 17 0.919
0.360 0.434 0.250 17 0.911
0.359 0.429 0.247 17 0.902
0.367 0.429 0.247 17 0.914
0.363 0.425 0.244 17 0.903
0.363 0.429 0.248 17 0.909
0.362 0.429 0.247 17 0.905
0.385 0.441 0.248 17 0.959
0.386 0.439 0.246 17 0.958
0.383 0.444 0.251 17 0.960
0.386 0.447 0.254 17 0.965
0.386 0.444 0.251 17 0.962
0.380 0.443 0.250 17 0.957
0.381 0.446 0.253 17 0.960
0.384 0.448 0.255 17 0.964
0.384 0.432 0.244 17 0.943
0.369 0.422 0.239 17 0.905
0.370 0.419 0.233 17 0.900
0.366 0.417 0.231 17 0.889
0.369 0.420 0.237 17 0.902
0.376 0.425 0.241 17 0.921
0.378 0.425 0.242 17 0.924
0.372 0.415 0.219 17 0.887
0.377 0.422 0.236 17 0.915
0.398 0.436 0.228 17 0.959
0.396 0.435 0.232 17 0.959
0.397 0.434 0.223 17 0.955
0.394 0.436 0.235 17 0.959
0.393 0.434 0.233 17 0.956
0.399 0.442 0.246 17 0.968
0.403 0.446 0.251 17 0.973
0.404 0.444 0.248 17 0.972
0.407 0.451 0.248 17 0.981
0.405 0.450 0.254 17 0.976
0.405 0.454 0.251 17 0.983
0.408 0.453 0.247 17 0.983
0.411 0.455 0.248 17 0.985
0.402 0.450 0.256 17 0.974
0.402 0.451 0.256 17 0.975
0.402 0.452 0.257 17 0.976
0.398 0.453 0.260 17 0.974
0.404 0.447 0.252 17 0.974
0.406 0.447 0.252 17 0.974
0.407 0.447 0.251 17 0.974
0.408 0.446 0.249 17 0.974
0.408 0.447 0.252 17 0.974
0.367 0.448 0.257 17 0.941
0.369 0.448 0.257 17 0.943
0.366 0.454 0.257 17 0.946
0.362 0.454 0.258 17 0.938
0.364 0.455 0.258 17 0.943
0.363 0.437 0.253 17 0.920
0.368 0.442 0.256 17 0.935
0.367 0.438 0.254 17 0.929
0.371 0.439 0.254 17 0.936
0.366 0.444 0.257 17 0.934
0.362 0.444 0.256 17 0.928
0.364 0.446 0.257 17 0.933
0.365 0.442 0.256 17 0.929
0.369 0.445 0.257 17 0.940
0.372 0.447 0.254 17 0.949
0.371 0.444 0.255 17 0.944
0.371 0.451 0.254 17 0.953
0.378 0.456 0.257 17 0.964
0.375 0.454 0.256 17 0.961
0.375 0.457 0.258 17 0.962
0.390 0.456 0.260 17 0.972
0.381 0.462 0.261 17 0.969
0.384 0.457 0.259 17 0.969
0.377 0.449 0.254 17 0.959
0.373 0.449 0.254 17 0.953
0.374 0.451 0.254 17 0.957
0.310 0.428 0.224 17 0.755
0.314 0.430 0.221 17 0.771
0.310 0.432 0.221 17 0.762
0.339 0.429 0.226 17 0.854
0.334 0.429 0.225 17 0.838
0.335 0.433 0.227 17 0.853
0.329 0.426 0.223 17 0.816
0.326 0.427 0.222 17 0.808
0.327 0.424 0.221 17 0.805
0.330 0.428 0.224 17 0.824
0.328 0.416 0.214 17 0.785
0.331 0.414 0.212 17 0.787
0.332 0.415 0.212 17 0.791
0.315 0.436 0.220 17 0.787
0.319 0.436 0.223 17 0.804
0.317 0.438 0.222 17 0.801
0.313 0.437 0.220 17 0.779
0.314 0.436 0.220 17 0.783
0.322 0.435 0.224 17 0.812
0.321 0.439 0.224 17 0.818
0.326 0.437 0.226 17 0.831
0.329 0.435 0.226 17 0.836
0.329 0.434 0.226 17 0.834
0.357 0.444 0.255 17 0.918
0.359 0.446 0.256 17 0.925
0.358 0.448 0.257 17 0.925
0.359 0.450 0.257 17 0.929
0.358 0.453 0.258 17 0.930
0.354 0.449 0.256 17 0.918
0.353 0.451 0.256 17 0.920
0.343 0.467 0.250 17 0.913
0.344 0.462 0.252 17 0.912
0.338 0.469 0.247 17 0.902
0.335 0.472 0.242 17 0.897
0.335 0.469 0.244 17 0.895
0.336 0.466 0.246 17 0.895
0.331 0.447 0.229 17 0.865
0.327 0.447 0.227 17 0.851
0.331 0.448 0.229 17 0.865
0.337 0.448 0.246 17 0.882
0.332 0.445 0.230 17 0.864
0.328 0.444 0.227 17 0.850
0.343 0.459 0.252 17 0.907
0.360 0.459 0.258 17 0.940
0.360 0.457 0.258 17 0.937
0.362 0.459 0.258 17 0.943
0.320 0.404 0.230 17 0.729
0.318 0.404 0.230 17 0.723
0.322 0.405 0.226 17 0.739
0.330 0.399 0.217 17 0.741
0.332 0.410 0.205 17 0.770
0.331 0.412 0.209 17 0.777
0.332 0.412 0.208 17 0.779
0.330 0.407 0.208 17 0.760
0.328 0.409 0.210 17 0.763
0.327 0.403 0.216 17 0.748
0.330 0.404 0.210 17 0.753
0.331 0.403 0.209 17 0.753
0.328 0.407 0.212 17 0.756
0.326 0.409 0.214 17 0.757
0.309 0.421 0.234 17 0.736
0.310 0.424 0.228 17 0.748
0.310 0.421 0.231 17 0.743
0.363 0.491 0.241 17 0.961
0.358 0.494 0.231 17 0.948
0.308 0.518 0.097 5 0.804
0.302 0.516 0.097 5 0.827
0.299 0.517 0.099 5 0.841
0.312 0.520 0.097 5 0.792
0.311 0.528 0.098 5 0.795
0.307 0.528 0.099 5 0.811
0.307 0.525 0.099 5 0.811
0.313 0.524 0.097 5 0.788
0.315 0.528 0.097 5 0.782
0.311 0.521 0.097 5 0.794
0.297 0.523 0.102 5 0.850
0.292 0.520 0.102 5 0.866
0.297 0.520 0.101 5 0.848
0.298 0.522 0.101 5 0.845
0.299 0.518 0.100 5 0.841
0.293 0.519 0.101 5 0.861
0.290 0.520 0.103 5 0.873
0.292 0.515 0.100 5 0.863
0.283 0.521 0.114 5 0.888
0.283 0.522 0.113 5 0.889
0.283 0.522 0.120 5 0.886
0.284 0.522 0.106 5 0.891
0.286 0.517 0.102 5 0.882
0.287 0.514 0.100 5 0.877
0.299 0.514 0.097 5 0.838
0.292 0.503 0.086 5 0.851
0.331 0.480 0.228 17 0.885
0.291 0.502 0.082 5 0.848
0.288 0.502 0.082 5 0.859
0.288 0.504 0.089 5 0.866
0.282 0.588 0.073 15 0.597
0.293 0.555 0.081 5 0.846
0.284 0.590 0.071 15 0.584
0.345 0.476 0.248 17 0.921
0.343 0.475 0.247 17 0.918
0.355 0.468 0.256 17 0.937
0.356 0.469 0.255 17 0.939
0.341 0.489 0.230 17 0.912
0.338 0.487 0.228 17 0.903
0.340 0.484 0.237 17 0.911
0.342 0.488 0.234 17 0.914
0.343 0.485 0.239 17 0.919
0.336 0.486 0.227 17 0.897
0.333 0.482 0.229 17 0.890
0.337 0.480 0.237 17 0.903
0.339 0.476 0.243 17 0.907
0.335 0.475 0.240 17 0.896
0.147 0.520 0.139 5 0.871
0.141 0.523 0.142 5 0.849
0.140 0.518 0.140 5 0.849
0.144 0.526 0.141 5 0.861
0.150 0.524 0.139 5 0.879
0.148 0.519 0.138 5 0.874
0.177 0.445 0.091 3 0.015
0.178 0.443 0.100 3 0.018
0.175 0.444 0.097 3 0.000
0.305 0.448 0.214 17 0.760
0.306 0.444 0.216 17 0.764
0.308 0.444 0.216 17 0.769
0.259 0.500 0.116 5 0.930
0.259 0.499 0.114 5 0.928
0.257 0.500 0.116 5 0.934
0.261 0.492 0.106 5 0.920
0.262 0.490 0.102 5 0.916
0.263 0.493 0.107 5 0.917
0.260 0.491 0.104 5 0.920
0.284 0.543 0.101 5 0.888
0.290 0.542 0.100 5 0.872
0.290 0.540 0.102 5 0.873
0.284 0.538 0.114 5 0.888
0.284 0.540 0.115 5 0.884
0.279 0.546 0.119 5 0.892
0.277 0.550 0.117 5 0.897
0.280 0.549 0.117 5 0.890
0.144 0.536 0.142 5 0.860
0.172 0.579 0.138 15 0.975
0.152 0.540 0.139 5 0.885
0.150 0.543 0.138 5 0.878
0.147 0.541 0.140 5 0.868
0.154 0.549 0.131 5 0.896
0.156 0.531 0.139 5 0.895
0.156 0.527 0.139 5 0.895
0.160 0.554 0.122 5 0.919
0.159 0.554 0.122 5 0.914
0.160 0.552 0.126 5 0.914
0.162 0.553 0.123 5 0.921
0.131 0.542 0.144 5 0.813
0.163 0.579 0.163 15 0.978
0.139 0.556 0.122 5 0.860
0.142 0.556 0.119 5 0.871
0.149 0.553 0.127 5 0.887
0.145 0.543 0.140 5 0.863
0.145 0.545 0.138 5 0.865
0.147 0.544 0.138 5 0.871
0.464 0.679 0.126 9 0.916
0.456 0.667 0.132 9 0.902
0.458 0.666 0.133 9 0.906
0.459 0.666 0.133 9 0.909
0.459 0.664 0.133 9 0.911
0.462 0.664 0.134 9 0.918
0.456 0.673 0.130 9 0.898
0.452 0.673 0.129 9 0.886
0.441 0.675 0.126 9 0.849
0.430 0.664 0.127 9 0.817
0.429 0.670 0.125 9 0.810
0.470 0.640 0.128 9 0.935
0.473 0.636 0.124 9 0.940
0.471 0.639 0.127 9 0.937
0.472 0.649 0.136 9 0.942
0.476 0.650 0.137 9 0.949
0.465 0.661 0.136 9 0.924
0.462 0.647 0.131 9 0.920
0.461 0.648 0.131 9 0.916
0.472 0.664 0.137 9 0.939
0.430 0.685 0.110 9 0.798
0.435 0.677 0.123 9 0.826
0.433 0.680 0.120 9 0.816
0.431 0.680 0.120 9 0.811
0.427 0.677 0.120 9 0.798
0.417 0.686 0.106 9 0.737
0.417 0.683 0.114 9 0.748
0.415 0.687 0.104 9 0.727
0.424 0.666 0.124 9 0.794
0.427 0.674 0.123 9 0.798
0.379 0.660 0.112 9 0.558
0.379 0.657 0.111 9 0.559
0.369 0.666 0.110 9 0.494
0.365 0.666 0.109 9 0.467
0.367 0.663 0.108 9 0.480
0.392 0.685 0.107 9 0.617
0.389 0.685 0.106 9 0.597
0.391 0.685 0.106 9 0.609
0.381 0.684 0.105 9 0.553
0.384 0.686 0.102 9 0.563
0.385 0.682 0.108 9 0.578
0.373 0.680 0.106 9 0.508
0.374 0.680 0.107 9 0.518
0.373 0.677 0.108 9 0.511
0.372 0.682 0.104 9 0.498
0.399 0.679 0.114 9 0.666
0.404 0.672 0.119 9 0.694
0.405 0.672 0.119 9 0.703
0.403 0.671 0.119 9 0.693
0.401 0.673 0.118 9 0.681
0.411 0.685 0.109 9 0.712
0.413 0.675 0.120 9 0.737
0.408 0.672 0.120 9 0.718
0.404 0.677 0.116 9 0.693
0.406 0.678 0.116 9 0.701
0.382 0.652 0.108 9 0.577
0.384 0.652 0.108 9 0.586
0.378 0.654 0.109 9 0.555
0.362 0.655 0.103 9 0.449
0.358 0.653 0.098 9 0.413
0.361 0.662 0.106 9 0.438
0.378 0.655 0.110 9 0.557
0.376 0.652 0.105 9 0.540
0.371 0.654 0.104 9 0.508
0.374 0.655 0.108 9 0.527
0.375 0.656 0.109 9 0.537
0.392 0.663 0.117 9 0.637
0.393 0.664 0.118 9 0.642
0.394 0.661 0.117 9 0.647
0.393 0.660 0.116 9 0.641
0.388 0.663 0.116 9 0.614
0.387 0.664 0.116 9 0.609
0.382 0.664 0.114 9 0.579
0.388 0.667 0.116 9 0.610
0.473 0.681 0.127 9 0.934
0.474 0.681 0.127 9 0.935
0.472 0.671 0.136 9 0.938
0.474 0.674 0.134 9 0.941
0.473 0.669 0.137 9 0.939
0.472 0.673 0.134 9 0.936
0.470 0.679 0.129 9 0.930
0.481 0.678 0.132 9 0.950
0.476 0.681 0.127 9 0.940
0.495 0.678 0.136 9 0.970
0.493 0.682 0.127 9 0.966
0.484 0.678 0.132 9 0.956
0.484 0.673 0.136 9 0.957
0.486 0.673 0.136 9 0.961
0.488 0.682 0.126 9 0.960
0.481 0.673 0.136 9 0.953
0.566 0.674 0.170 9 0.909
0.566 0.677 0.168 9 0.909
0.555 0.689 0.149 9 0.942
0.545 0.672 0.158 9 0.959
0.541 0.674 0.156 9 0.963
0.546 0.668 0.161 9 0.955
0.548 0.664 0.168 9 0.943
0.550 0.671 0.165 9 0.944
0.556 0.666 0.172 9 0.924
0.551 0.666 0.170 9 0.936
0.549 0.666 0.165 9 0.948
0.504 0.682 0.129 9 0.977
0.536 0.684 0.145 9 0.971
0.526 0.681 0.146 9 0.975
0.530 0.677 0.152 9 0.971
0.527 0.684 0.143 9 0.975
0.521 0.680 0.135 9 0.985
0.524 0.676 0.149 9 0.977
0.500 0.651 0.145 9 0.978
0.502 0.652 0.146 9 0.980
0.501 0.650 0.146 9 0.979
0.499 0.650 0.145 9 0.978
0.499 0.651 0.145 9 0.977
0.487 0.655 0.143 9 0.965
0.490 0.657 0.144 9 0.969
0.499 0.673 0.140 9 0.976
0.495 0.675 0.138 9 0.971
0.495 0.671 0.140 9 0.972
0.491 0.669 0.141 9 0.967
0.488 0.670 0.140 9 0.964
0.497 0.659 0.145 9 0.976
0.495 0.668 0.143 9 0.973
0.500 0.665 0.145 9 0.977
0.502 0.666 0.145 9 0.979
0.520 0.655 0.158 9 0.975
0.520 0.656 0.157 9 0.976
0.522 0.657 0.158 9 0.975
0.524 0.660 0.158 9 0.974
0.525 0.660 0.159 9 0.973
0.525 0.659 0.159 9 0.973
0.521 0.659 0.156 9 0.977
0.521 0.661 0.158 9 0.975
0.508 0.664 0.147 9 0.982
0.541 0.672 0.158 9 0.962
0.528 0.674 0.154 9 0.973
0.536 0.665 0.160 9 0.966
0.533 0.666 0.159 9 0.969
0.536 0.621 0.279 11 0.000
0.543 0.616 0.286 11 0.016
0.545 0.617 0.291 11 0.000
0.545 0.618 0.291 11 0.000
0.524 0.669 0.156 9 0.974
0.316 0.666 0.096 9 0.080
0.317 0.670 0.098 9 0.088
0.315 0.668 0.096 9 0.068
0.322 0.672 0.099 9 0.135
0.332 0.662 0.098 9 0.215
0.337 0.663 0.100 9 0.256
0.332 0.662 0.099 9 0.215
0.331 0.664 0.099 9 0.211
0.320 0.663 0.096 9 0.115
0.320 0.660 0.095 9 0.113
0.325 0.662 0.097 9 0.159
0.327 0.657 0.093 9 0.174
0.329 0.655 0.091 9 0.183
0.331 0.661 0.098 9 0.208
0.329 0.659 0.097 9 0.197
0.307 0.671 0.094 9 0.000
0.309 0.670 0.096 9 0.015
0.341 0.657 0.098 9 0.292
0.346 0.657 0.099 9 0.331
0.344 0.655 0.096 9 0.308
0.345 0.655 0.097 9 0.318
0.348 0.657 0.100 9 0.346
0.346 0.654 0.096 9 0.324
0.344 0.654 0.095 9 0.307
0.346 0.652 0.093 9 0.322
0.339 0.651 0.087 9 0.258
0.332 0.655 0.092 9 0.212
0.334 0.656 0.095 9 0.231
0.333 0.656 0.094 9 0.219
0.329 0.657 0.094 9 0.187
0.310 0.680 0.095 9 0.017
0.313 0.681 0.095 9 0.045
0.309 0.685 0.091 9 0.000
0.313 0.674 0.097 9 0.052
0.288 0.666 0.102 15 0.589
0.279 0.676 0.093 15 0.587
0.329 0.682 0.097 9 0.179
0.329 0.680 0.099 9 0.180
0.332 0.684 0.096 9 0.203
0.330 0.684 0.096 9 0.182
0.335 0.679 0.100 9 0.231
0.334 0.685 0.096 9 0.216
0.320 0.689 0.090 9 0.089
0.325 0.689 0.091 9 0.132
0.326 0.690 0.088 9 0.133
0.327 0.679 0.099 9 0.170
0.326 0.681 0.098 9 0.159
0.325 0.680 0.098 9 0.152
0.324 0.677 0.099 9 0.147
0.319 0.679 0.097 9 0.098
0.324 0.674 0.099 9 0.149
0.325 0.653 0.088 9 0.151
0.327 0.652 0.080 9 0.151
0.320 0.659 0.094 9 0.112
0.314 0.657 0.089 9 0.052
0.314 0.660 0.093 9 0.065
0.329 0.652 0.086 9 0.179
0.198 0.658 0.137 15 0.929
0.197 0.655 0.143 15 0.940
0.207 0.645 0.154 15 0.949
0.204 0.645 0.152 15 0.952
0.254 0.661 0.105 15 0.751
0.256 0.657 0.107 15 0.754
0.250 0.658 0.101 15 0.761
0.252 0.677 0.100 15 0.709
0.255 0.675 0.104 15 0.711
0.252 0.674 0.104 15 0.723
0.257 0.669 0.111 15 0.733
0.257 0.665 0.109 15 0.740
0.255 0.668 0.108 15 0.739
0.262 0.665 0.115 15 0.732
0.233 0.673 0.084 15 0.733
0.229 0.672 0.078 15 0.724
0.234 0.672 0.086 15 0.735
0.226 0.640 0.156 15 0.920
0.225 0.634 0.160 15 0.929
0.224 0.637 0.159 15 0.928
0.222 0.638 0.159 15 0.930
0.232 0.636 0.154 15 0.911
0.234 0.637 0.152 15 0.904
0.233 0.635 0.154 15 0.908
0.235 0.636 0.152 15 0.902
0.232 0.630 0.157 15 0.917
0.231 0.628 0.158 15 0.920
0.214 0.638 0.159 15 0.946
0.230 0.653 0.135 15 0.882
0.230 0.652 0.142 15 0.890
0.226 0.651 0.146 15 0.903
0.220 0.651 0.150 15 0.916
0.212 0.656 0.145 15 0.920
0.212 0.655 0.147 15 0.923
0.216 0.653 0.148 15 0.919
0.212 0.654 0.148 15 0.925
0.217 0.651 0.151 15 0.923
0.226 0.644 0.153 15 0.915
0.217 0.654 0.145 15 0.914
0.214 0.659 0.137 15 0.906
0.217 0.658 0.138 15 0.900
0.215 0.658 0.139 15 0.907
0.224 0.647 0.151 15 0.915
0.227 0.605 0.160 15 0.938
0.226 0.603 0.159 15 0.938
0.228 0.602 0.158 15 0.935
0.224 0.604 0.160 15 0.943
0.230 0.596 0.153 15 0.927
0.229 0.600 0.156 15 0.930
0.228 0.596 0.154 15 0.931
0.243 0.597 0.137 15 0.887
0.242 0.597 0.138 15 0.889
0.241 0.594 0.138 15 0.891
0.240 0.599 0.145 15 0.900
0.234 0.594 0.147 15 0.915
0.237 0.593 0.142 15 0.905
0.228 0.615 0.161 15 0.933
0.230 0.619 0.161 15 0.928
0.231 0.617 0.160 15 0.926
0.233 0.601 0.154 15 0.922
0.233 0.605 0.155 15 0.922
0.235 0.608 0.155 15 0.917
0.235 0.603 0.153 15 0.918
0.229 0.605 0.159 15 0.932
0.227 0.606 0.160 15 0.938
0.274 0.619 0.115 15 0.748
0.275 0.620 0.116 15 0.745
0.275 0.619 0.116 15 0.745
0.267 0.584 0.086 15 0.698
0.271 0.586 0.092 15 0.701
0.266 0.584 0.089 15 0.711
0.269 0.587 0.095 15 0.719
0.274 0.591 0.101 15 0.713
0.273 0.588 0.096 15 0.706
0.276 0.590 0.099 15 0.701
0.272 0.591 0.102 15 0.724
0.276 0.592 0.102 15 0.710
0.274 0.593 0.105 15 0.726
0.273 0.596 0.107 15 0.734
0.268 0.624 0.110 15 0.763
0.259 0.627 0.115 15 0.802
0.256 0.629 0.118 15 0.818
0.258 0.624 0.116 15 0.810
0.259 0.629 0.115 15 0.799
0.282 0.641 0.122 15 0.704
0.283 0.643 0.121 15 0.696
0.285 0.642 0.120 15 0.684
0.283 0.645 0.120 15 0.691
0.284 0.647 0.119 15 0.681
0.225 0.562 0.107 5 0.973
0.225 0.561 0.111 5 0.973
0.226 0.562 0.106 5 0.973
0.228 0.563 0.104 5 0.971
0.219 0.578 0.118 15 0.906
0.211 0.577 0.118 15 0.918
0.209 0.576 0.119 15 0.922
0.220 0.565 0.096 5 0.973
0.222 0.564 0.101 5 0.974
0.221 0.561 0.107 5 0.976
0.224 0.560 0.112 5 0.974
0.221 0.605 0.159 15 0.950
0.219 0.609 0.160 15 0.954
0.221 0.609 0.160 15 0.950
0.216 0.607 0.162 15 0.959
0.224 0.603 0.159 15 0.943
0.223 0.607 0.160 15 0.947
0.227 0.610 0.161 15 0.938
0.228 0.608 0.160 15 0.935
0.230 0.611 0.160 15 0.931
0.233 0.609 0.158 15 0.924
0.229 0.626 0.160 15 0.926
0.231 0.625 0.159 15 0.922
0.231 0.624 0.160 15 0.924
0.231 0.619 0.160 15 0.926
0.233 0.619 0.159 15 0.921
0.216 0.614 0.163 15 0.958
0.217 0.609 0.162 15 0.958
0.223 0.579 0.125 15 0.908
0.220 0.578 0.130 15 0.920
0.215 0.577 0.122 15 0.917
0.209 0.577 0.133 15 0.940
0.210 0.576 0.129 15 0.933
0.211 0.576 0.131 15 0.934
0.232 0.590 0.144 15 0.915
0.206 0.546 0.123 5 0.980
0.205 0.550 0.119 5 0.981
0.205 0.547 0.122 5 0.980
0.207 0.556 0.107 5 0.983
0.207 0.557 0.103 5 0.983
0.204 0.556 0.110 5 0.981
0.256 0.583 0.079 15 0.718
0.256 0.583 0.073 15 0.698
0.259 0.583 0.080 15 0.712
0.258 0.570 0.097 5 0.924
0.254 0.583 0.075 15 0.711
0.239 0.590 0.066 15 0.733
0.250 0.563 0.105 5 0.947
0.252 0.564 0.108 5 0.942
0.251 0.562 0.108 5 0.945
0.251 0.569 0.097 5 0.937
0.271 0.584 0.080 15 0.667
0.272 0.569 0.095 5 0.894
0.274 0.569 0.092 5 0.889
